0.2461032049 0.0030155491 -0.5989928486
-0.1202219990 0.0310634690 0.6105060279
0.3914769095 -0.2310608970 0.1063198878
-0.1568440895 0.1877159402 -0.0620485704
-0.0770062376 0.3045547192 -0.8926561007
0.1737792967 0.1492957404 0.2675544271
-0.2556878365 0.1238885662 -0.5073274050
-0.0769459730 -0.1653158512 0.2647785045
0.3523952793 -0.1958610266 -0.9117085931
0.1278508041 -0.0059004024 -0.2328014651
-0.1741953785 0.1729721769 0.2939396328
0.0875295903 0.0310242465 0.0355986620
-0.0723382535 0.1490366510 -0.3157214289
0.1736415091 -0.1383282315 0.2106378678
-0.0628710192 0.2055839848 -0.6554000112
0.2740311176 0.0337172765 -0.8498802341
0.0233936350 0.0183177481 0.4120860738
0.0771397833 0.2066089213 -0.1313281311
-0.0246122247 0.2088649753 0.1240522469
0.2923881258 0.0267500453 0.1346592859
0.1596720376 -0.1005257700 -0.4228770033
-0.2285956218 0.0038541510 0.3615734780
0.1116600041 0.0779870818 -0.3974929846
0.0063064171 0.1871044651 0.3365966550
0.3074061083 -0.0971997068 -0.7332858248
0.4666904065 -0.3095861221 -0.0116118250
-0.1128410861 0.0784844682 -0.4523494839
-0.0994711383 0.1126856593 0.4284586332
-0.2196627478 0.1039949946 -0.3381297037
-0.0080737835 -0.0667367950 0.5649809439
-0.1746420664 0.1794838477 0.1215978483
0.0792376701 0.1800749941 0.0178156137
0.0838256199 0.1580678362 -0.2730701757
-0.0901672091 -0.0233687163 0.3075255960
0.0505892542 0.0220118741 -0.1072421114
-0.0040624312 0.0881563261 0.5394442141
0.3074212609 -0.1191490567 0.1529418512
0.0418124286 -0.0824969024 0.2433345967
-0.1392014297 0.2624846446 -0.7676060790
0.0904441823 0.1198887108 0.1516659172
-0.0616833045 0.1739530652 -0.1711593494
-0.1351222460 0.1047145558 -0.5896665684
0.0986548956 0.0354368920 0.2816004227
0.2007716444 0.0145219751 -0.4733690676
0.3367360911 -0.0643905390 -0.9097403021
-0.0278641315 0.2153664109 -0.0472060088
0.2388467548 0.0365196534 -0.7239676763
-0.0364788073 0.2089608129 -0.8185367949
0.2357518948 -0.0954440616 -0.5230909856
-0.0703573572 0.2107314066 0.2389452526
0.1232503059 0.0989844802 -0.1685413862
0.1751176702 -0.0078274608 -0.3439593885
0.2271603369 0.1221384678 0.1616563157
-0.1797562112 0.2057896912 -0.6305191722
-0.1731563020 -0.0994742875 0.2743625148
0.0446210751 0.1980392719 0.2249933380
0.2000778567 0.0291896648 0.2245299355
-0.1525263455 0.1486232994 -0.2351199852
-0.1023297539 0.1997966530 0.0376331828
0.2773940520 -0.2119096480 0.0973285470
-0.1866765049 0.1581118492 -0.4286966518
0.0975281028 0.1254560671 0.3433962757
-0.1975019702 0.1075018419 0.3809846342
0.0785926732 -0.1835745456 0.2348857655
0.0939684052 0.1104276149 -0.0640997494
-0.1105430879 0.0974556337 0.5309706886
0.1447036830 0.0774674606 -0.2931850351
0.3365359494 -0.0376100011 -0.8116129939
0.2713965916 -0.0856709823 -0.6395230662
-0.0941537082 0.1793476954 0.3530149035
-0.1699577062 0.1712191670 -0.5260728093
-0.0117505472 0.1042645436 0.3855320661
0.0205974678 0.0023517932 0.5070582762
-0.0259353518 0.0180942277 0.6019344388
-0.0485310490 -0.0613855776 0.2328924057
-0.0590229406 0.2975199329 -0.7996812491
0.2835543893 0.0719230041 0.2160992409
0.2774820700 -0.1689737188 -0.8671465421
0.2691756558 -0.0439122278 0.1852325936
-0.1504533765 0.1866168198 0.2080557767
0.2346621617 -0.1908799800 0.1727241693
-0.1018893974 0.1494622773 -0.3991793128
0.0598034628 0.1899326098 0.1053342108
-0.0031265064 0.2124868144 0.0383227625
-0.0413860659 0.2409584607 -0.7330441955
0.0403772588 0.2035609012 -0.2110291021
0.0957997693 -0.1294217340 0.1687220466
0.3995985576 -0.2724393434 0.0304575481
-0.1393259532 0.1438282509 -0.1482624189
0.0966070648 0.1125355528 0.0662533220
0.2901468343 -0.0235602136 -0.6961350591
-0.1301468344 0.2405138992 -0.6888722261
-0.1572064297 0.1533684507 -0.3165913213
0.0532599429 0.2232613426 -0.0461587064
-0.1112803526 0.1830659212 -0.5931330666
0.0021841415 -0.1586974441 0.2500438744
0.1811239019 0.0154771627 -0.5516713479
0.3358969420 -0.1164776833 -0.8481535565
0.0344054172 0.0531417458 0.3402693502
-0.0290158050 0.0985874852 0.4639001204
0.3444327370 -0.1668301867 0.0995257276
0.2223052844 0.0865785974 0.2748170554
0.0983840679 0.1726172127 0.2797910117
0.2950461026 -0.2437645476 -0.8861302392
-0.0992912647 0.1984170020 0.1468254080
-0.0809672151 0.1814328594 -0.0952694556
0.2967314458 0.0230894197 -0.7753502478
0.2903992757 -0.0019065086 -0.9189594031
0.0603912693 -0.0118898496 -0.1939938791
-0.0074497838 0.1953505757 -0.1203507509
0.2003472471 -0.0333476791 -0.4129507133
0.1526699090 0.0849112736 0.3062825826
-0.0649713991 0.0828742025 0.5900471523
0.3034609797 -0.0470670383 0.1177291718
-0.1456629474 0.0755645393 -0.5205310560
0.1765062178 0.0404075797 -0.4057072793
0.0904192886 0.1118334239 -0.3321566056
0.1120423492 -0.1108876749 0.2430645457
-0.0684768786 0.1712760116 -0.7211414662
-0.1246522244 0.2880051493 -0.8353886581
0.1002868769 0.1617599970 -0.1996930217
0.0826143978 0.0558968158 0.1109041952
-0.0537429630 0.1552053117 -0.2452224700
-0.1253874538 0.1478584254 -0.4710722397
-0.0976567448 0.1415926357 -0.6518858466
0.2097537525 0.0338705615 -0.6541203357
-0.0152191961 0.2706445665 -0.8495186850
0.1052113699 0.0311460553 -0.1571421802
-0.0294460148 0.0378673240 0.3674337292
-0.1488791508 -0.1660391878 0.2768130921
0.2329074561 -0.0247939866 -0.5268108445
-0.0081127315 0.2059983784 0.2697680381
-0.0169478260 0.2086607751 0.1928021287
-0.0830976344 0.0837738485 -0.3903874806
0.1726484538 0.1443349220 0.1974355951
0.1400637254 0.0621382008 -0.2264505318
-0.0962852917 0.2027769955 -0.0320135488
-0.2402203552 0.1163225183 -0.4372864200
0.1375755352 -0.1968183791 0.2030029651
0.0888104493 0.1447200511 0.2150707677
0.0971124549 0.0880667317 0.0001504447
-0.1590897925 0.1808177297 0.0059849319
-0.2278779040 0.1286815996 0.3243631077
0.2157704961 -0.0830695085 -0.4600584019
0.0242402686 0.0588506525 0.4711652216
-0.0021331145 -0.0851436021 0.1911996660
-0.1120824280 0.1970038539 0.2892016872
0.0998755228 0.1421466091 -0.1225106163
0.1807644945 -0.1588179385 0.1477945090
-0.1369533610 0.1341446628 0.3769318114
0.2560249928 -0.0630626329 -0.5792097759
0.2299875325 0.1303288320 0.2268488361
-0.1764350789 0.0460224472 0.3832918910
0.3327714298 0.0088944582 -0.8612810476
-0.0556192689 0.1504463312 0.3970752282
-0.0267180937 0.2638715380 -0.9126534409
0.1485232429 -0.0302811906 -0.2897150425
-0.1161818433 -0.1180650775 0.2498354870
0.0962039260 0.1696969360 -0.0424663970
0.3295932616 -0.2410297484 0.1175504602
-0.2052918678 0.1801187176 -0.5775806166
0.0378339060 0.1387838750 0.3620502085
0.0654266570 0.1799531506 0.1685804775
0.2768066587 0.0851870077 0.1506933793
0.3478239917 -0.2102672834 0.0547010370
0.2919910348 0.0129684437 0.1973351896
0.3162724814 -0.0381520430 -0.7527022374
-0.0541430611 0.1207489897 0.5188273467
0.1215241848 0.1196341464 -0.2411583312
0.4534773355 -0.2974681686 0.0483728813
-0.0514010070 0.2032861949 0.3140365719
0.3433513988 -0.1280241891 -0.9081476980
0.0957306984 0.0639984647 -0.1060357631
0.1564907607 0.0649584708 -0.3530850500
0.1465345285 0.0441662707 -0.4591686248
-0.2028173252 0.1552224802 0.2138716466
0.0163530226 0.0342078378 0.5608529458
0.3309051799 -0.0979233646 -0.7907022215
-0.0083414228 -0.0751678862 0.2757670544
-0.1895913355 0.1475673268 -0.3667400876
0.1551984713 0.0386095691 0.2651856053
0.0665265587 0.1796204065 0.3288939326
-0.1132337795 0.2275779357 -0.6339593159
-0.1251019856 0.1901035066 0.0908829030
-0.2088603722 0.1583998014 -0.4830112299
-0.0589474787 0.2080242099 0.0760900720
0.2627428908 0.0096244255 -0.6568823941
0.0954721479 0.0346476896 -0.0227326247
-0.1058344213 0.1618743856 -0.2690820518
-0.1026389168 0.1613956542 -0.2094449726
-0.0440902562 -0.1239640348 0.2425324460
-0.2396640282 0.0724024663 0.3647154961
-0.0851191518 0.2758214841 -0.7536189273
-0.0492872680 0.2071879055 0.0049123135
0.0139443874 -0.0203960997 0.5901526495
0.1776486791 -0.0601309915 -0.3652007581
0.1612451853 0.0235097731 -0.2990702853
-0.0471624885 -0.0354828072 0.5901361525
0.0264708131 0.2173291550 -0.1589294355
0.1367247303 0.1448859158 0.3090188180
0.0972339552 0.0721493670 0.3294474954
-0.0755710724 0.2480745752 -0.6886548119
0.0229796921 -0.0158485011 0.4553263052
0.0489279533 0.2085379100 0.0543033978
0.3356539991 -0.1671083143 -0.8682942871
0.0438234694 0.1856481706 0.2780192169
-0.1292955837 0.1489021913 -0.5548103336
-0.0513956221 0.1971708828 -0.7675814444
-0.1766052744 0.1477366529 0.3423698077
-0.0311675737 0.2529868422 -0.7864677888
-0.1140521032 0.1628014850 -0.3483943400
0.0389803350 0.2014744923 -0.0932304426
-0.0918773341 0.0976912562 0.4808921798
0.2984516394 -0.1652503583 0.1266065052
0.0213632955 0.2058007986 0.1538871331
-0.1658682179 0.1744747789 0.0606754053
-0.0493627603 0.3171421474 -0.8480164737
0.0057373965 0.0709573258 0.4221360954
0.2228646198 -0.0330125527 -0.4756403842
0.2894562425 -0.0776837258 -0.6880866540
0.1954469102 0.0246433929 -0.6046053809
-0.2246658270 0.1603387753 -0.5332305264
0.0109099022 0.2173965954 -0.0118001466
0.1353824310 0.1602742357 0.2326189453
0.2715715852 -0.0353895376 -0.6258933142
0.2786078528 -0.2075727492 0.1489355108
-0.0492595296 -0.0438388992 0.2836238359
0.0780765665 0.1606546072 0.0661099733
0.1810359166 -0.1190001151 -0.4725318231
-0.0697872475 0.1304245147 -0.3637460760
-0.0077900910 0.1565706781 0.3777626866
0.1199723023 0.1257036546 -0.2924412429
-0.1207339530 0.0672968913 0.5713202962
-0.1004588428 0.2005018058 0.1978696570
0.3093760261 -0.0207040691 0.1633931617
-0.2300336145 0.1099260752 -0.3873833176
-0.0565553383 0.1376007386 0.4472302117
0.0725499077 -0.1032304714 0.2090816681
0.0105690604 0.2090223305 0.0869816813
0.0606427832 0.0923160453 0.3579962918
-0.1443821538 0.0846927625 0.3835829551
-0.0190747376 0.0633982189 0.5809469660
-0.1392318181 0.1835270112 0.3315598453
0.2353499130 0.0645819151 0.2318076343
0.2483684213 0.0358653585 -0.7744041451
0.3941030884 -0.2748457535 0.0799285245
-0.0831244510 -0.0016259942 0.6043656048
0.0835057714 0.1796709281 -0.0899717839
0.2374307607 -0.1891395659 0.1231817956
0.0999439295 0.1374914322 -0.0036085192
0.3085588601 -0.0705442915 0.1620890754
-0.1559174084 0.1902370750 -0.5695233926
0.2837315612 0.0159252138 -0.7257413629
0.0471246143 -0.1450582688 0.2347656617
-0.1487234383 0.1615588633 -0.3904223887
-0.1331302373 0.1231907241 -0.5131399100
0.3366643552 -0.0420312850 -0.8662097046
-0.0460307145 0.1802409012 0.3559601786
0.1428891595 -0.1379970133 0.1735089581
0.3218184228 -0.1225061555 0.1072608050
0.0813852007 0.1390162496 0.1086883023
-0.0600086694 0.2111513445 0.1710189634
-0.1435814074 0.1861085575 0.1601229727
0.3174107812 0.0081241453 -0.8157052918
-0.1458277091 0.1901885924 0.2552840749
0.0758496783 0.2032367486 -0.1786273281
0.1671014869 0.0189187008 -0.5064494880
0.0061246408 -0.0288191444 0.5405777380
0.2617437050 0.1053165703 0.1906601310
0.0792177279 0.0662573573 -0.0571402892
0.1976095257 -0.1774995993 0.1981283498
-0.2625011935 0.0333964107 0.3486162985
0.3332578315 -0.0119357503 -0.9032910932
0.0219836884 0.0562130379 0.5176289265
0.3275942702 -0.2123344864 -0.8756299000
0.0749572634 0.1821292433 -0.2345698264
0.1943502005 0.0030964577 -0.3845082148
-0.1008017829 0.1249073635 -0.4380658657
0.1217508982 0.0280276760 -0.2017400488
-0.1115249421 0.1392415737 -0.6079537183
0.2273930148 0.0101935886 -0.5580159037
-0.1039616381 0.2825315473 -0.7951799042
0.1347534072 0.1018901769 -0.3353703447
-0.0763470424 0.0431925870 0.6116596167
0.0907865698 0.0674839081 0.0651639871
0.0535120316 0.2147043285 0.0037157290
-0.0995595404 0.1642436936 -0.1460904223
0.1982693322 -0.0784806647 -0.4177012875
-0.0339970131 0.1908555560 -0.0841123131
0.1874241856 0.1106379738 0.2891030413
-0.0560697452 0.2101421526 -0.7031323614
-0.1669584378 0.1662538258 -0.4704133365
-0.1296611460 0.1652634591 -0.4305097683
0.3078367810 -0.1941339923 0.0646983157
-0.0514042523 0.1845670377 -0.1279665967
-0.1188204873 0.2570514563 -0.7288604331
0.4886854273 -0.3130196786 0.0269843742
0.1134242350 0.1004638644 -0.1255533034
0.2944506406 0.0498441440 0.1735884497
-0.0729793386 0.1142932283 0.5579756137
0.3697153806 -0.2490076087 0.0524971436
0.1445275613 0.0269754890 -0.2563735828
0.0919637881 0.1711873941 -0.1540320441
0.4360291729 -0.2867033577 0.0100228723
0.3580591627 -0.2032172212 0.1188220729
-0.0944998332 0.1355480732 0.3850363479
-0.1418175337 0.1480206126 -0.1932646356
0.1958010961 0.0067670195 -0.4311987693
-0.0855975282 0.1797638689 -0.6276381414
0.1161793355 -0.1648240112 0.2253138547
-0.0023006484 0.0844883977 0.4963174120
-0.0752688552 0.1712979890 -0.6779981457
-0.1629101122 0.2227711071 -0.6660786124
-0.0071269401 -0.0746247498 0.2324399252
0.1628734499 -0.0451857593 -0.3272659276
-0.1431317561 0.2077689852 -0.6067690691
0.0711639348 -0.1140099313 0.2541561587
0.0643611609 0.0125136288 -0.1461567560
-0.0287590152 0.1162711850 0.4234429505
0.0753714757 0.1742159505 0.2423148644
0.2745481050 -0.0959848666 0.1661146675
-0.0706927234 0.2085952154 0.1167091055
0.0919477757 0.0972323229 0.1052686708
0.2581876820 0.0329366860 0.2163664889
-0.1474047682 0.1080981727 -0.5495905305
0.1442355833 0.0629314271 -0.4202090979
0.2074860579 0.0072742957 -0.5178691624
0.0003824706 0.0667817897 0.3623841781
0.3438829051 -0.0764117380 -0.8251915734
-0.0286774703 0.2089222701 0.2337154853
0.1900971613 0.0619699488 0.2658161243
-0.1210226960 0.1964856194 0.0007471568
0.3448822135 -0.0948125370 -0.8822682377
0.2653079272 0.0322556169 -0.6924709993
0.1950765088 0.1541760775 0.2327164256
0.1192258935 -0.1203848460 0.2038090753
0.1407162205 0.1717430918 0.2764378137
0.1767582372 0.0300156539 -0.3591944645
-0.0879595080 0.3039467658 -0.8464538938
-0.1513032054 0.1522437537 -0.2763364879
0.2475790325 -0.0238055187 -0.5684514197
-0.0484176160 0.2084386001 0.2729917178
-0.1095573951 0.1996884314 0.2372263781
0.1015307620 0.1620354296 0.3201347456
0.1268310248 0.0988516520 0.3337696548
0.0909353166 -0.0207183262 -0.2278337526
-0.0376931462 0.0935382599 0.5624972195
0.2722123127 0.0337779322 -0.8100168383
0.1156293771 0.1249888474 -0.1990491273
0.2820398065 -0.2082051474 -0.8723100219
0.0809367062 0.1999713187 -0.0211002386
0.2327908687 -0.0622025401 -0.5014100064
0.2297430573 0.0861833041 0.1447992096
0.0253422277 0.0236706778 0.4515498373
-0.1557140620 -0.1233520702 0.2478894126
0.0838824316 0.0821269639 0.1422956020
0.3093532459 -0.0860488147 0.1161776988
0.2832862221 -0.0469208690 -0.6641818662
-0.0406667124 0.3006984032 -0.9112826689
0.2447511634 -0.0599570358 -0.5398644110
0.2056660810 0.1256494128 0.2575816321
0.1058694721 0.1566147358 -0.2382356023
0.3636944955 -0.2575913533 0.0982789059
0.3034515187 -0.0549088403 -0.7196606268
0.1069128252 0.1347304109 -0.1602369671
-0.1774684801 0.1793798249 0.1782220978
0.0922780702 0.1366372688 0.0360886360
0.3140974599 -0.0112008287 -0.7809426938
-0.1102145452 0.1602499570 -0.3098431981
-0.0356536767 -0.1604627385 0.2584702674
0.0413457540 0.2062727766 0.1871260965
-0.0529588217 0.1424628354 -0.2817617590
0.1203800572 0.0618357426 -0.1787515363
0.2396238420 0.0286751376 -0.6302977900
-0.1243531972 0.1014209508 -0.4810943470
0.1823649562 0.0413552357 -0.4436908063
-0.0620810813 0.1682314306 -0.2100732986
-0.1538795804 0.2423571495 -0.7189442051
0.1221200339 0.0633511816 0.2977710358
0.2463679947 -0.0949275837 -0.5602045073
0.0703068313 0.1341750069 -0.3084047876
0.0571135039 0.0417157391 0.3116667786
0.1373348280 0.0859159547 -0.2561598405
0.1046672212 0.0948579219 -0.3640700193
0.1088858622 0.0657453591 -0.1417221634
-0.0138679508 0.2020545687 0.3071799362
0.0244865629 0.1032270768 0.3641886509
0.2100539717 0.1389575307 0.1931203375
-0.0020771379 -0.1256705307 0.2316706180
-0.1224094819 0.1604272102 -0.1159601468
0.3262134444 -0.0608921342 -0.7814726194
0.0091521665 0.2072002236 0.2357127286
-0.0241342439 0.2338877506 -0.8471482567
0.1417389657 -0.1351629876 0.2307151279
-0.0801643943 -0.1268672419 0.2572611856
0.4253906233 -0.2742494055 0.0584370191
-0.1105688501 -0.1463359366 0.2742252782
0.0817885646 0.0330641294 0.0808689018
-0.0416094095 0.2050005349 0.0427228480
0.0757866046 0.1535238861 0.1430802843
0.0952140313 0.1444079520 -0.0837375593
-0.2284492306 0.1091925061 0.3565478305
-0.0291844681 0.2806079402 -0.8160719924
-0.0578132384 0.1159531017 0.4805281262
0.3067045580 -0.2119870071 0.1235207254
-0.0910021527 0.1969837450 0.3201029956
0.2595751440 -0.0919107485 -0.6024090227
-0.0545723550 0.1199243123 -0.3303559324
0.1320341435 0.0925179758 -0.2054997025
0.3006160987 -0.0083658498 0.1269062249
-0.2190736519 0.1434236006 -0.4508932224
0.3655614487 -0.1947933329 0.0838434818
0.2624814199 -0.0101679580 0.1980197315
-0.1367245711 0.1871523999 0.0396388925
0.0694135350 0.1793910842 0.2049928378
0.2225893878 0.0377564877 -0.6881623886
0.0936180851 0.0067632623 -0.1921799939
0.0290041962 0.2043974848 0.1182047518
-0.0706841579 0.2623723569 -0.7216957363
-0.1555499114 0.1572227118 -0.3550111586
0.0756583068 0.1960605606 -0.0586767799
0.0366331221 0.1731755503 0.3513755844
0.0828659330 0.1428255114 0.1796083884
0.1575198081 0.0732898670 -0.3884264373
-0.1455103674 0.1555765362 -0.5037007976
0.2139569329 -0.1750091677 0.1463818662
-0.0888423597 0.2423150407 -0.6557673492
-0.1422558035 0.1908090392 -0.0295008188
0.0029222155 0.0839020480 0.4570395018
-0.2116104878 0.0488519136 0.3775329999
0.0309544628 0.1917014647 0.3108158733
-0.1338669786 0.1868869090 0.1253811739
0.2474940791 0.0980661374 0.2225525673
0.0925795462 0.0654423764 0.0273077087
-0.0611100852 0.2095018239 -0.0358083372
-0.0127492190 0.1992873925 -0.1553614539
-0.0249893872 0.2104988117 0.0881545898
0.0271209062 -0.0878077968 0.2113751259
-0.1240075650 0.1596569467 0.3557942231
0.1032500864 0.1122920298 -0.0284805596
0.0553952913 0.2012684524 0.1417079750
0.1076761716 -0.2024133593 0.2211768174
0.2110714447 -0.0527658206 -0.4423620160
0.2987773997 -0.0161854076 -0.7311932602
0.2251240557 -0.1007556019 -0.4898311147
0.0694128235 0.1467675600 0.3432719480
0.0697150863 0.0453214938 -0.0838598605
0.0155908666 0.2198533654 -0.0466507501
-0.0512957278 0.2100126666 0.2067457221
0.0411481265 0.2083258060 -0.1282304916
-0.0958464055 0.0927302762 0.5764251019
0.1599340119 0.0534870526 -0.3173440139
0.3283941036 -0.1467229899 0.1318300726
0.0986741951 0.1004629274 0.0329577948
0.0061997537 0.1955007054 -0.0821889434
0.0803760316 0.0330305680 -0.1220670519
-0.0916130741 0.1990506379 0.0865521069
-0.0522831874 0.2648161185 -0.7581290346
-0.0977348567 0.0752021459 -0.4208723686
-0.0848541850 0.1179771768 -0.3968537274
-0.2471074156 0.1206902771 -0.4711404396
0.0055471836 -0.0230876530 0.4886584179
-0.0869277888 0.2016183222 0.0048209823
-0.2109666229 0.1398948157 -0.4121704440
-0.1759158503 0.1947448833 -0.5973341943
-0.0217466802 0.2095184114 0.1586385130
0.0051586679 0.0132858333 0.5877731163
0.3106264612 -0.1436790588 -0.8649640793
-0.0301138129 0.1059266127 0.4992280981
0.3095560018 0.0287197365 -0.8457665951
-0.1708482678 0.1308857654 0.3742484436
-0.0785320624 0.2035107949 0.2889815526
-0.0457425292 0.0502472259 0.5982490702
0.3365898918 -0.0169228811 -0.8392821703
0.1846735188 -0.0276722934 -0.3735075763
0.3033871755 0.0127703530 0.1653527975
0.0300829384 0.0518720570 0.4082153699
0.0152883966 0.0005302215 0.5574903544
-0.0873520664 0.1656303369 -0.2410912215
0.1616679768 -0.0088165098 -0.3122001546
0.2486231971 0.1357901682 0.1992875718
0.2860561998 0.0832452538 0.1832227639
0.1588326917 0.1179511595 0.3069170859
0.1418520980 -0.0081050578 -0.2653828586
0.3481792271 -0.1612443396 -0.9092001701
0.1861566762 -0.1494672777 0.1815488777
0.1546705880 0.0570448110 -0.2671411371
0.0211040524 0.0326673069 0.4918247443
-0.1857053190 0.1364313092 -0.3213848398
-0.1445709803 0.1884129569 0.2921758900
-0.0789805141 0.1378197454 0.4209387565
0.0987373609 0.0676477427 -0.0260888330
0.0236818815 0.2139437291 0.0187179122
-0.1790265605 0.0803608073 0.3861859957
0.1069468931 0.1161211396 -0.0966284030
-0.0300284619 0.1326985580 0.3840360058
0.2114791375 -0.0185687662 -0.4457896307
-0.0503160541 -0.0057557514 0.6051317595
0.3175688932 -0.2231393261 0.0926319895
-0.1235736823 0.1982008267 -0.0555747275
-0.1572240747 0.1827824891 0.0939531013
-0.2033017357 0.1309107254 0.3512512135
-0.0541361331 0.2095831871 -0.7374160659
0.3076981444 -0.1867805160 -0.8708957801
0.2729196593 0.0332212143 -0.7512778784
-0.0734811893 0.1674964462 0.3753703534
0.1907341331 -0.0972940976 -0.4433141302
-0.1481306668 0.2174692945 -0.6374514115
-0.1182551156 0.1564483445 -0.1715609726
0.2322992224 0.1065587440 0.2500391595
-0.0435697721 0.2287257862 -0.7671250260
-0.0149414159 0.2136678026 0.0073875867
0.0704091287 0.1810353440 0.2958835561
0.0147987602 -0.0919853867 0.2607839195
0.3429480677 -0.1348793262 -0.8766402111
0.0239130012 0.0255497744 0.5307743110
0.2596502914 -0.0052302795 -0.6285431251
-0.0851188483 0.1055444504 0.5113138603
-0.0292110910 0.1086294070 0.5354597537
0.2927933777 -0.0193804975 0.1907765413
0.2424825080 0.0346372641 -0.6616348498
-0.1580814396 0.0780108156 -0.5521279372
0.0877293722 0.1736830225 -0.1211161241
-0.1925684007 0.1730315606 -0.5485759437
0.0910598186 0.1676827343 -0.0110594823
0.1083429519 0.1665032118 0.2482332595
-0.1225843298 0.1567028496 -0.2419644184
0.0059808080 0.1278383836 0.3719397401
0.3143956557 -0.0721564938 -0.7514619441
0.1117077381 0.1439283561 -0.2677603970
0.3375505859 -0.0731199924 -0.8602562464
0.2167417376 -0.1645803149 0.1764692311
-0.0309743489 -0.0582135815 0.2589289954
0.2594906015 -0.0296036099 -0.5970815778
0.0147579688 0.2073165868 0.2040100323
0.0939165792 0.1391829981 -0.0512342094
0.0918512006 0.0826051325 -0.0809257612
0.0300879460 -0.1713115204 0.2382184097
-0.0775792912 0.1617267788 -0.2850652723
0.0653444794 0.1893385543 0.0744067188
-0.0846196898 0.1507558633 -0.3449963766
0.0021023756 0.0619916447 0.5577121634
-0.1043347807 0.1961510959 0.1160295835
0.1738279284 0.0239289816 -0.3276608032
-0.1066280552 0.0568345614 0.5971215226
0.3534376432 -0.2218461843 -0.8902296499
0.1361389056 0.0872814127 -0.3706447030
-0.0868836040 0.2110582746 -0.6351297909
0.1705946282 0.0319920622 -0.4745187795
-0.0284476924 0.1939689896 0.3333095204
-0.1222740002 0.1076839397 0.3835169850
0.3485854902 -0.0488192874 -0.8384341923
-0.0800171585 0.1161733558 0.4522822428
0.0573178139 0.2101122932 -0.1548467056
-0.0275698623 0.2497940361 -0.8180498268
0.2757993288 0.0007949747 -0.6836260615
-0.1344734124 0.2726862321 -0.7963923247
-0.1817964279 0.1562248442 -0.3953168154
0.0687847935 0.2048675624 -0.1004474403
0.0042857751 0.0766825612 0.3918815375
0.1620306862 0.0635876583 0.2818725124
0.2227677591 0.0208345498 -0.5865482894
0.1801692144 0.0367379744 0.2472822328
0.2660054294 -0.0629995984 -0.6135018526
0.0910242490 0.0926806786 0.3514987984
0.2565440943 -0.1863932007 0.1515516461
0.1898700466 -0.0565531665 -0.3931246664
0.0782849877 -0.1530126096 0.2323443841
-0.2342038686 0.1414034572 -0.4943647893
-0.1013415958 0.2544437751 -0.7038944715
0.2319852283 0.1078097034 0.1971407195
-0.1902668401 0.1608766034 0.3169104791
0.3352409335 -0.1833198429 0.1234748490
-0.0421255699 0.2777188237 -0.8903084954
0.2499149245 0.1016852577 0.1628187887
-0.0691653731 0.2018615833 0.0301167408
-0.1275416188 0.1911528756 0.1875360773
-0.0503463501 0.2116689120 0.1400543216
0.2144280755 -0.0092965145 -0.4926518035
-0.1835234399 0.1655061801 -0.4981340493
0.2992977339 -0.0461657384 0.1781487811
-0.0161240622 0.1754086533 0.3551343798
0.0926020765 0.0432448586 0.0061812609
0.3496107890 -0.1906869333 -0.8811891383
0.0876027800 0.0520239425 0.3089745456
-0.1086453257 0.2064263329 -0.6121999781
-0.1150033457 0.1550838915 -0.5822123858
0.0207521800 0.1972175075 0.2618083003
0.1645862436 0.1596555114 0.2404067653
0.3344816218 -0.1833359487 0.0740211301
0.2903774430 0.0436820669 0.2028761413
-0.2108533006 0.1254548384 -0.3701309200
0.0478126879 0.1933456433 -0.2411583312
-0.1285140053 0.2319155707 -0.6593900464
0.0715732875 0.1640921789 0.0951562114
0.0852012011 0.1875732356 -0.2069563211
-0.0677763850 0.1906311709 0.3378707851
-0.0112841317 0.0936424864 0.4320606162
-0.1585773697 0.1625023517 -0.4196171923
-0.0866531748 0.2948525940 -0.8161493748
0.2847880402 0.0546463947 0.1420758911
-0.0143063819 -0.0093937944 0.6022053376
0.0423067302 0.2045808958 0.0856659771
-0.1294210177 0.0726845587 -0.4871273063
0.3191492763 -0.0998049422 -0.7614761741
0.0165213895 0.0048099554 0.4757671344
-0.2366352256 0.0413206364 0.3633233160
-0.0905465666 0.2045965340 0.2618050710
-0.0249367826 0.2985879040 -0.8521562828
0.0186114303 0.0502990591 0.4403122928
0.0045351356 -0.0402088752 0.5691455403
0.2730818078 -0.0179311840 -0.6535223426
0.0700599255 0.1878282195 0.0452206637
0.1212375454 0.1685943489 0.2990652316
-0.0617684875 -0.0489827564 0.2562437033
0.2647553226 -0.2040089832 0.1228509537
0.2996165892 0.0009081179 -0.7560540893
-0.0098546350 0.0401988733 0.3455108002
-0.1780721473 0.1763932280 0.2095248179
-0.0718062161 0.0974285783 -0.3668364176
-0.1177574140 0.1651344496 -0.3799306387
-0.0543674151 0.0225609257 0.6120435760
0.0185196709 0.2108545218 0.0581460498
0.1331553618 0.0236132709 -0.2295148625
-0.0712566026 -0.0477278923 0.3025817880
0.0105412399 0.1962511241 0.2903061153
0.1221708705 0.1270857264 0.3275162263
-0.1137536727 0.1949304058 0.0643157263
-0.0608803411 0.2245872690 -0.6781258987
0.2088449054 0.0502631290 0.2466508972
0.0641069642 0.1219497017 0.3578070993
-0.0805826879 0.2038091085 0.0569070220
-0.0889571347 0.1682498813 -0.1797518455
0.1280175029 0.0380630207 0.2755926305
0.0475144789 0.2091195658 -0.1821558897
-0.0328917446 0.2127716708 -0.0187993135
-0.0180288844 -0.1381294836 0.2531532033
-0.0642354064 0.2871642986 -0.7719888462
0.1857602985 0.0819291468 0.2865666975
-0.0359737587 0.1627607630 0.3772395891
0.1305483636 0.1018916022 -0.2792052517
0.2235648351 0.0945062099 0.1720993203
0.3005547016 0.0299200964 -0.8067889353
-0.0552485708 -0.1389054534 0.2651679157
-0.1480210914 0.1510933583 -0.5330798041
0.3094613502 -0.0446872394 0.1457219108
0.0033390481 0.2070481386 0.1308268686
-0.1116942977 0.2695438292 -0.7623352238
0.3632576897 -0.2289661913 0.0718224750
-0.2174261798 0.0872835546 0.3778256957
0.1680196800 0.0483923420 -0.3792249730
0.4633791093 -0.2979525306 0.0216349779
-0.1507771751 0.1463051184 0.3543461514
0.0311161193 0.0766766308 0.3563966713
-0.0789890216 0.1780032658 -0.1301909638
-0.1414289408 0.1681230468 -0.4562425444
0.0371211579 0.2177831179 -0.0228093586
-0.0093426135 0.0376633982 0.5882892103
0.0856211210 0.1366173800 0.0791383825
-0.1315439986 0.1758367126 -0.5708359877
0.3151592401 -0.0913351137 0.1433704597
-0.0566456747 0.2380158347 -0.7079134337
0.0182374594 0.2077720216 -0.1116941541
-0.0966005857 0.0914589840 0.4537428699
-0.0879378722 0.2032112141 0.1722469005
0.1581696262 0.1434862961 0.2907054671
0.0854428080 -0.0993417012 0.2338695076
-0.0378929153 0.2271282577 -0.7954529598
0.1481024350 0.0764926624 -0.3285180467
0.1935341547 0.0193860157 -0.5766509060
-0.1381847873 -0.1400748257 0.2782596130
0.0741086811 -0.1179948261 0.1824500774
0.0653031880 0.2110697493 0.0302001349
-0.1714347428 0.1799188552 0.1508645752
0.1316318801 0.1028050141 -0.3071831239
-0.0902259924 0.1470955508 -0.3738350081
-0.1914824845 0.1598839659 -0.4585718468
-0.0300492351 -0.0723898739 0.2150225106
0.3396873942 -0.0988665152 -0.9093923487
0.2118612178 0.0286431618 -0.6267517956
0.0660163121 0.1749437573 0.1279668550
0.1481701480 -0.1297864541 0.2033188458
-0.0454867089 0.1393839991 0.4205216807
0.2633194083 0.0642635792 0.2336012693
0.4221819213 -0.2881497261 0.0339765316
0.0537013323 0.1893418215 0.2505914750
-0.1660615870 0.1050984268 0.3831247987
0.3209425114 0.0072105094 -0.8876053524
-0.1284399577 0.1305338656 -0.5754028805
0.2856001798 -0.0701133601 0.1776887104
0.1077881362 -0.0026589011 -0.2142483732
0.3198696203 0.0086521217 -0.9156869426
-0.1267973957 0.0819573540 0.5488666351
-0.1668339288 0.1699285868 0.3294589451
0.0059519421 0.2071843370 0.1765749875
0.0173679436 0.1579074199 0.3668564766
0.0924881175 0.1404005921 -0.2935106364
0.2915470279 -0.1398391117 0.1444727785
0.2238740085 -0.0619156706 -0.4754595242
-0.1431824578 0.2531926128 -0.7422087163
-0.0412637415 0.1841906246 -0.1533192607
0.3213229868 -0.2364553234 -0.8868072897
-0.2072438796 0.1618473552 -0.5123238818
0.3365626283 -0.0401031054 -0.8974809517
0.0910885095 0.1168988739 0.1799919579
0.0865504533 0.1643761875 -0.0673293478
-0.0460840893 0.2108704198 0.1054134204
-0.1577920724 0.2331563342 -0.6937065950
-0.1158517150 0.1471305013 -0.4452390713
0.0650388623 0.1733312580 -0.2608868006
0.3412612306 -0.1022461212 -0.8175202708
-0.1045403617 0.0974934095 -0.4346262019
-0.0480539461 0.3006883665 -0.8242110548
-0.1354205638 0.1561745671 -0.2978822812
0.0917791041 0.1787632049 -0.1804755877
0.2941101008 -0.0500545562 -0.6926568128
-0.1306151266 0.1583634363 -0.3273932679
0.0694085595 0.1776170322 0.2691257175
-0.0096269327 0.2087133298 0.0641852398
-0.0599394225 0.1842187632 -0.7443535992
-0.1258102424 0.1938451403 0.2160214940
0.0818243675 0.1613647448 0.0374030161
0.2806529553 -0.0906828984 -0.6662841942
-0.2114049715 0.0221697500 0.3711005893
-0.1516073342 0.1728480024 -0.5495162801
0.0092435058 0.2077565048 -0.1373256668
-0.0796617176 0.2076203330 0.2132554400
-0.1051950176 0.2454562568 -0.6789292287
-0.0519440521 0.3138516975 -0.8906419431
0.1282368626 0.0541715480 -0.2031931656
-0.1175282612 0.1933694545 0.3190662620
0.1539773516 0.1523148739 0.2150552723
-0.0421719240 0.2492220976 -0.8964063983
0.0906306015 0.1168151934 0.1233758830
0.1019364959 0.1144734983 0.0104887342
0.0359027880 -0.1071988166 0.2514294712
0.3808339802 -0.2504607501 0.0792050067
-0.0452905731 0.2767500540 -0.7874479620
0.0188162867 -0.1412760134 0.2367750536
-0.0994345132 0.1625179942 -0.6121434350
0.0288615076 0.0305557380 0.3891840226
-0.0883996634 0.0765326525 0.6007641369
0.0796904215 0.2203432989 -0.0488863864
-0.0853127165 0.1650115202 -0.6512754380
-0.0310436950 -0.0653887169 0.2852258938
0.1315060918 0.0955522693 -0.2322545498
-0.1616684781 0.1849229907 0.2348209354
0.2291424804 -0.0360813109 -0.5013661670
0.2997133016 -0.0815195381 -0.7135603176
0.2747195931 0.0964761126 0.2125052314
0.3790858714 -0.2067285211 0.1030385894
0.2650473975 0.0346093776 -0.7257413629
-0.0439181468 0.2010943354 -0.7945709386
0.0881299176 0.0721061721 0.0909112443
0.3306741467 -0.0175752503 -0.8777474167
0.2745717612 -0.0597888782 -0.6425993961
0.2014946200 -0.0068027357 -0.4094663100
0.3881871741 -0.2707278410 0.0540136571
-0.0229876240 -0.0513654156 0.5801119712
-0.0754094209 -0.0372427411 0.2789289636
0.1027347015 0.0897743310 -0.1041742365
0.3260646397 -0.0339763429 -0.7857229257
0.1886231282 0.0165600862 -0.4061009990
-0.1269583958 0.1661283403 -0.4046326054
0.1738295846 -0.0343090005 -0.3508307464
0.2240309188 0.0705454318 0.2544836034
-0.0406104177 0.1171813285 0.4482404377
-0.1016313434 0.1559098273 0.3683418405
0.0026514482 -0.0258291632 0.5150800056
0.0946537073 -0.1136587550 0.1991384902
0.2056284357 0.0125723579 -0.5438262827
0.1830354329 0.0100440056 -0.5256330416
-0.1282313012 0.1538281952 -0.2143903759
-0.2064742604 0.1461736522 0.3305003590
-0.0559279549 0.1861315397 -0.0990268652
-0.1132877401 0.1105449661 -0.4597147223
0.1614088053 0.0478001133 -0.2906151877
-0.1177159799 0.1974237241 0.2615063111
-0.0134866174 0.0987725877 0.5174677967
0.0130280433 -0.0051677339 0.5325396053
0.2471281570 0.0356940952 -0.7487440119
-0.1359376805 0.0918588162 -0.5032491644
0.0901486446 0.1558841769 0.0137749648
0.0607275131 -0.0925999553 0.2293263764
0.3511675576 -0.2357256666 0.1027963852
0.1142419558 0.1123859382 -0.1486854755
0.2482442629 0.1244656443 0.1763500469
0.0166576004 0.0674210047 0.4944265562
-0.0082542162 0.2086413024 0.2170370494
0.3244591307 -0.0147702430 -0.8067873670
-0.0943628379 0.1014927715 0.5523223979
0.0830535962 0.1950716304 -0.1551494475
-0.1416904531 0.1845498232 0.0645278427
0.3009826736 -0.0947868297 0.1644630058
0.1750492292 -0.1637356220 0.2121208578
0.1524173703 -0.0016139535 -0.2876354240
-0.0932462710 0.0241455268 0.6112325842
-0.1597612994 0.1782304883 0.0334922857
-0.0058642477 0.2169395163 -0.0309418260
0.1130372750 0.1374406949 -0.2210331756
0.3232316752 -0.1215208014 0.1325750675
-0.1334432906 0.1989010528 -0.5850729220
-0.1081283739 0.1719299512 -0.0984425604
0.3102924155 -0.0675323159 0.1348268641
-0.1214885267 0.1325454796 -0.4908349407
-0.1678362073 0.1638133712 -0.4445784321
-0.1426909789 0.1030064485 -0.5249639899
-0.1079926445 0.0918214532 0.4994134426
0.0653697723 0.2198055677 -0.0219037032
-0.1807986602 0.1849305703 -0.5739766192
0.0073918910 0.0773180198 0.5197757814
-0.1227981498 0.1168708087 -0.6106826539
-0.0541311089 0.1347593352 -0.3057950295
0.1655197936 -0.1474622315 0.1672720692
0.1957894766 -0.1711599681 0.1641639734
0.3408602835 -0.0620580852 -0.8850198158
-0.0621716184 0.1995019174 -0.6811940643
0.0697591746 0.0579154386 0.3261228438
0.0183458190 -0.0778193377 0.2326784343
0.1147478350 0.1128162157 -0.3228269607
0.2745996333 0.0335101172 -0.7809596242
0.1671168251 0.0542996767 -0.4257985499
0.1009412509 0.1493594977 -0.0285982088
0.0641059412 0.2000919340 -0.2018440231
0.0556036649 0.2038567602 0.1666241627
-0.1099453555 0.1294718482 -0.6309402989
0.1669444551 0.0442998623 -0.3411482105
-0.0424456243 0.0726380596 0.5864175597
-0.0288499509 0.1896309285 -0.1088195029
0.0857921081 0.0979639550 0.1626541810
-0.0145912529 0.0807740362 0.5608195893
0.2819400306 -0.1186770221 0.1588986300
0.1853090917 0.0065734506 -0.3616236073
-0.0675362856 0.2058562595 -0.0118803443
0.2857215246 -0.0028450049 -0.7089611076
-0.0501386839 0.1106294931 0.5491910718
0.1945845117 0.0152017323 -0.4973064865
0.0751740926 0.2006711323 0.0047469036
-0.1729160141 0.1524828240 -0.3381013568
0.2343931828 -0.0114992953 -0.5485193765
0.1294965904 0.0813285836 0.3139861745
-0.0073376634 0.2086778430 0.1052328926
0.1016417494 0.1517746413 -0.1772063103
0.0841301069 0.0170791074 -0.1600988030
0.0162804932 0.0503987089 0.5412707535
-0.0956717212 0.2651411269 -0.7306536626
0.2058340297 0.1061292156 0.2734700301
0.0603533998 0.2032161066 -0.0765079498
0.0013987611 0.0909525555 0.3666423291
0.3332754286 -0.1440953300 0.1052686708
0.3354408460 -0.0613984058 -0.8057819027
-0.0804402936 0.2073596413 -0.0507092674
0.2140191508 0.1468494530 0.2159042193
0.0993801795 0.0447225368 -0.1319784135
-0.0339425317 0.2072513086 0.2926129828
-0.1474619237 0.0925427013 -0.5686188866
0.0864858430 0.1676924731 -0.2507140526
0.2444605080 -0.0345681270 -0.5459102476
0.0185832286 0.0067606607 0.4353816817
-0.2158969575 0.1693782787 -0.5545027499
0.1143384927 0.0363199776 -0.1801032646
-0.1174684356 0.1821971637 0.3423030299
-0.0942543921 0.1021054731 -0.4131509138
0.1744783768 0.0974789672 0.3048154791
-0.0597656175 0.0977547175 0.5716927809
-0.0078650013 0.0942840091 0.4072156209
0.0963817191 0.0910291306 0.0550764450
0.1204496542 -0.1356633942 0.2421124685
0.0741269675 0.1644821469 0.1857431352
-0.0378994413 0.2103215678 0.1809162316
-0.1206442617 -0.1680842249 0.2714079951
0.1872745499 0.1301462519 0.2732086622
0.1251956787 -0.0213768000 -0.2510432635
0.2098441560 -0.0088605050 -0.4677195514
-0.1404754758 0.1301878492 -0.5422365910
0.1218031233 0.1199025008 -0.2659542297
-0.1206840562 0.1920795060 0.1641633180
0.0867573684 0.1800534414 0.3134262768
0.1560778458 -0.1538959940 0.2229849515
-0.0283191467 0.1877311316 -0.1334310411
0.1798236974 0.0283529975 -0.3848458739
0.1207515239 0.0670056385 -0.4181197414
0.1324221592 -0.1746009825 0.2101875500
0.0806960776 -0.0109428112 -0.2065852735
0.1351121939 0.0739429941 -0.3995805952
0.2656023362 0.0121708664 0.2072009740
-0.0906281994 0.1634247030 -0.3256757630
0.0938317855 0.0920574175 0.0791147721
-0.1546795591 0.1848197089 0.1846342759
0.1935136683 0.0200693766 -0.4508741509
0.2962021277 0.0305572229 -0.8654273400
0.2875258428 0.0318452236 -0.8303261867
0.0897385837 0.0517782963 0.0472766019
0.1474420060 0.1031674808 0.3226994858
0.1447951855 0.1661616916 0.2536916432
0.0922670033 -0.1248099445 0.2525135556
0.0924289568 0.1563840770 -0.1050529125
0.0930172025 0.1158874219 0.0907403338
-0.2634898526 0.1228332478 -0.5296472031
-0.0691081962 0.1820121303 -0.7000691347
0.2787219592 0.0494240229 0.2226463101
-0.0734042062 0.1841974396 -0.6581212621
0.0409101274 0.1842302194 0.3308481342
0.2401881782 -0.0464542752 -0.5210913173
-0.0815791264 0.2896047631 -0.7934589121
0.3019983291 0.0307679962 0.1851169091
-0.0902612415 0.1333877551 -0.4137853633
-0.0766579805 0.1151982957 0.5347686574
0.3079051045 0.0123083935 -0.7930633718
0.0040533697 -0.0700285779 0.2565006154
0.2397943028 -0.0026635948 -0.5748804998
-0.1090814757 0.2878469911 -0.8178921907
-0.1472564770 0.1419148591 -0.1713275612
-0.0713705162 0.1622707260 -0.2589089367
-0.0673927065 0.0614345816 0.6000514396
0.0976272933 0.1742199633 -0.2216177072
0.2274163125 0.0248843289 -0.6091032631
-0.0488060131 0.2096484124 0.2479216970
0.3253030730 0.0065730421 -0.8376350467
-0.0717236629 0.2094460000 0.1913674154
0.3491215077 -0.1575078206 -0.8861661005
-0.2454057327 0.0202089319 0.3585645445
0.1288370822 -0.1157013821 0.2276192565
-0.2420120121 0.1402966506 -0.5166269717
-0.1689133976 -0.1214167329 0.2678134502
-0.0331286199 0.2079419945 0.0642096566
-0.1469222091 0.1648827022 -0.4821499146
-0.0359606353 0.2469871717 -0.7548903016
-0.0789516842 0.2065998453 0.1390877393
0.3025331661 -0.2235287708 -0.8774797581
0.0958840580 0.0649229622 -0.0031902580
-0.0274088959 0.2087196451 0.2568981415
-0.1124559779 0.1527171730 -0.4195804970
0.2830608032 -0.0255900258 -0.6731629877
0.2118281853 0.1383434901 0.2387254505
0.1430274427 0.0454402289 -0.2421610715
-0.2043099023 0.1212688690 -0.3378473659
0.1175692701 0.0896156034 -0.1465629466
-0.1591760189 0.1840247207 0.2730639181
0.3610065688 -0.1851706885 0.1047562481
0.2072436115 -0.0783328612 -0.4389476730
0.1010019040 -0.1818763645 0.2298307705
-0.1610494739 0.0631431025 0.3836946885
0.1096662187 0.1038259999 -0.3433961118
0.1066780172 -0.1105818947 0.2204102284
0.0859259978 0.1548934954 0.2354946440
0.0857743381 0.0769402991 0.1196098295
0.0534522229 0.1870718836 0.3102681858
0.0666976501 0.1893278700 0.2254848059
0.1231061805 -0.1289954476 0.1808265209
0.0617919305 0.1924805178 0.1874007059
0.1242941519 0.1111220960 -0.2163638311
0.1912217668 0.1438649633 0.2538103958
0.3351283840 -0.0936457090 -0.8477002925
0.1943984751 -0.0221636365 -0.3939373783
-0.0866272661 0.1524542711 -0.6703126972
0.0438099297 0.1152314570 0.3657699617
-0.1217595311 0.1974294079 -0.0219764768
-0.0624011438 0.1931917779 -0.7214200982
-0.0881309213 -0.1462299473 0.2707337771
-0.0167155413 0.0967434603 0.4828886761
0.0093048639 0.1971648408 0.3148777932
-0.1344345549 0.1608877230 -0.3624710347
-0.1363880488 -0.1269302964 0.2598540817
0.2298831262 0.0865630343 0.2395423206
-0.2269520807 0.1421391541 -0.4729074798
-0.0962821315 0.1542190210 -0.6329777874
0.1533342698 0.0317375178 -0.2768704341
0.0620254176 0.1596897486 -0.2788728296
0.3008629061 -0.1654118462 -0.8681087200
0.1665788973 -0.1405871071 0.1887826355
-0.1202064203 0.1956212714 0.0233119095
0.0287864813 0.0338147395 0.4275691445
-0.0713478913 0.3050532562 -0.8312629431
0.2934436415 0.0366554635 0.1548750715
0.2029699215 -0.1556535053 0.1951708786
0.3475033626 -0.1162667138 -0.8894161539
0.2964512642 -0.2234241853 0.1071063637
0.1920574047 0.1475175178 0.2112173698
0.2414814488 0.0361053453 -0.7002071184
-0.1333232671 0.1559697810 -0.2634014705
0.1184225075 0.1694905862 0.2680753873
0.2524524599 -0.0483879753 -0.5625990316
0.1057339616 0.0777802950 -0.1228923297
0.3055656992 -0.0014347612 0.1825751638
0.1286928001 0.0817064448 -0.1861506393
0.0916209275 0.1457342361 0.3359538090
-0.0227227211 0.1162041713 0.4018851038
0.1455714195 0.0853631127 -0.3504460478
0.0984392973 0.1519130168 -0.1446970265
0.1986945770 -0.0564144938 -0.4142121723
0.1142451810 0.1198381828 -0.1751937751
0.0122563000 -0.0190004005 0.5679283574
-0.0826237555 0.1677254279 -0.2011489245
0.0603423283 -0.1649721803 0.2379975956
-0.2035807043 0.1409581829 -0.3911749355
0.3005290377 0.0076887482 0.1438473328
0.2718100813 0.0982024929 0.1721192658
0.2400228555 0.0414682738 0.2259997276
0.1070741547 0.1054260412 0.3417559470
0.2090119722 0.1306623238 0.1712808243
-0.1655568719 0.1575292993 -0.3764875052
0.3080967243 -0.0369411266 -0.7318811686
0.2859422472 0.0679595869 0.1639814003
0.1467763006 -0.0965812545 -0.4052653295
0.0861748248 0.1409224318 0.0569591353
0.2757995163 0.0170532698 -0.7050807329
0.3237573180 -0.0815704739 -0.7739263066
-0.1246080118 0.0504284367 0.5851346955
0.2929069542 0.0633988359 0.1910222386
-0.0311287443 0.2086831047 0.0216314990
0.0859188434 0.0914301955 -0.0561055980
-0.1443261556 0.1143097211 0.3833547926
0.2373506353 -0.0714476069 -0.5209733118
0.0856343623 0.0614471635 -0.0795314849
-0.0668809586 0.1790795715 -0.1503038596
-0.0668440240 0.1359616228 -0.3393173497
0.0290390696 0.1992400570 0.2411064836
0.1481720200 0.0662827033 -0.2473637811
-0.1591546197 0.1778996966 0.3103446757
0.1004366728 0.0913569286 -0.0220525363
0.2227809181 0.0020161271 -0.5348339679
0.2286098497 0.1311035207 0.1841503949
0.0885206175 0.1903490778 -0.0415785893
